VERSION 0.7
FIELDS x y z intensity
SIZE 4 4 4 4
TYPE F F F F
COUNT 1 1 1 1
WIDTH 880
HEIGHT 1
VIEWPOINT 0 0 0 1 0 0 0
POINTS 880
DATA ascii
29.1633167267 41.8816261292 9.6205911636 36.0000000000
0.3230364323 0.4624453783 -0.3344808221 60.0000000000
0.3275916874 0.4686294198 -0.3211933970 70.0000000000
0.3419753313 0.4890186191 -0.3172198236 82.0000000000
0.3514284194 0.5021743178 -0.3076602817 59.0000000000
0.3710702360 0.5300500393 -0.3061791658 52.0000000000
0.3773359060 0.5385907888 -0.2927015126 52.0000000000
0.3897916973 0.5559581518 -0.2835206389 46.0000000000
0.4235394895 0.6038770676 -0.2879252434 6.0000000000
2.7864005566 3.9705154896 -1.7649655342 13.0000000000
2.9960596561 4.2676854134 -1.7613472939 19.0000000000
3.2344403267 4.6038250923 -1.7550581694 14.0000000000
3.5062894821 4.9870705605 -1.7474328279 12.0000000000
3.8590316772 5.4867453575 -1.7553288937 12.0000000000
4.2755742073 6.0744705200 -1.7593052387 9.0000000000
4.7923130989 6.8061027527 -1.7684600353 13.0000000000
5.3638558388 7.6121668816 -1.7535402775 12.0000000000
-0.0000476050 -0.0001774072 0.0000869783 77.0000000000
6.6247787476 9.4787082672 -1.6240892410 2.0000000000
8.0416545868 11.4974250793 -1.6368900537 14.0000000000
8.7481689453 12.4982404709 -1.4217693806 34.0000000000
14.2633218765 20.3700542450 -1.7364647388 4.0000000000
19.0075035095 27.1252517700 -1.5414133072 20.0000000000
32.0278244019 45.6893310547 -1.2901096344 19.0000000000
32.0891227722 45.7427139282 0.0053377235 13.0000000000
-0.0000476050 -0.0001774072 0.0000869783 3.0000000000
-0.0000476050 -0.0001774072 0.0000869783 3.0000000000
-0.0000476050 -0.0001774072 0.0000869783 3.0000000000
-0.0000476050 -0.0001774072 0.0000869783 10.0000000000
-0.0000476050 -0.0001774072 0.0000869783 3.0000000000
-0.0000476050 -0.0001774072 0.0000869783 11.0000000000
-0.0000476050 -0.0001774072 0.0000869783 9.0000000000
-0.0000476050 -0.0001774072 0.0000869783 17.0000000000
0.3256135881 0.4606373310 -0.3344811797 48.0000000000
0.3301993012 0.4667755365 -0.3211943507 70.0000000000
0.3447026014 0.4871145785 -0.3172200322 82.0000000000
0.3552578688 0.5016499162 -0.3085583150 59.0000000000
0.3762117028 0.5308484435 -0.3078908324 50.0000000000
0.3792763948 0.5349783897 -0.2918889225 52.0000000000
0.3939604759 0.5552885532 -0.2842916250 46.0000000000
0.4323983192 0.6090213656 -0.2915623188 8.0000000000
2.8118004799 3.9594902992 -1.7670196295 13.0000000000
3.0271790028 4.2596344948 -1.7651900053 20.0000000000
3.2653253078 4.5913367271 -1.7574435472 14.0000000000
3.5363163948 4.9705429077 -1.7485377789 12.0000000000
3.8973081112 5.4738888741 -1.7583699226 12.0000000000
4.3162107468 6.0600233078 -1.7620739937 9.0000000000
4.8348484039 6.7831783295 -1.7697108984 13.0000000000
5.4213027954 7.6003460884 -1.7579860687 15.0000000000
6.2012290955 8.7712459564 -1.7637521029 29.0000000000
-0.0000476078 -0.0001774004 0.0000867400 76.0000000000
8.1172256470 11.4685602188 -1.6392140388 15.0000000000
8.9375391006 12.6181859970 -1.4410786629 21.0000000000
14.4391527176 20.3779697418 -1.7439997196 4.0000000000
19.0928344727 26.9257736206 -1.5361284018 20.0000000000
-0.0000476078 -0.0001774004 0.0000867400 1.0000000000
-0.0000476078 -0.0001774004 0.0000867400 9.0000000000
-0.0000476078 -0.0001774004 0.0000867400 3.0000000000
-0.0000476078 -0.0001774004 0.0000867400 3.0000000000
-0.0000476078 -0.0001774004 0.0000867400 3.0000000000
-0.0000476078 -0.0001774004 0.0000867400 10.0000000000
-0.0000476078 -0.0001774004 0.0000867400 3.0000000000
-0.0000476078 -0.0001774004 0.0000867400 11.0000000000
31.3764801025 44.0036392212 8.8844804764 43.0000000000
29.4508914948 41.2725448608 9.5579328537 18.0000000000
0.3312629461 0.4629427195 -0.3375420570 47.0000000000
0.3267859221 0.4563510418 -0.3153178990 72.0000000000
0.3454397023 0.4822272062 -0.3153434694 84.0000000000
0.3581515849 0.4996099472 -0.3085585833 59.0000000000
0.3771483898 0.5257158875 -0.3061808944 52.0000000000
0.3792400360 0.5282505751 -0.2894498110 55.0000000000
0.3939201534 0.5484992266 -0.2819805145 50.0000000000
0.4413438737 0.6140961647 -0.2951992750 10.0000000000
2.8341522217 3.9412050247 -1.7663383484 12.0000000000
3.0516602993 4.2421278954 -1.7651926279 19.0000000000
3.2950615883 4.5770978928 -1.7592332363 13.0000000000
3.5702469349 4.9557147026 -1.7507450581 14.0000000000
3.9321527481 5.4560475349 -1.7598924637 12.0000000000
4.3600721359 6.0453605652 -1.7653039694 9.0000000000
4.8864583969 6.7702221870 -1.7738713026 15.0000000000
5.4743685722 7.5791969299 -1.7605814934 14.0000000000
6.2792143822 8.7738990784 -1.7715346813 14.0000000000
7.3724026680 10.2938146591 -1.7782018185 22.0000000000
8.1958732605 11.4393711090 -1.6417701244 20.0000000000
8.9706115723 12.5114765167 -1.4347753525 23.0000000000
14.6191396713 20.3746013641 -1.7511168718 4.0000000000
19.3990535736 27.0263748169 -1.5482304096 21.0000000000
-0.0000476119 -0.0001773902 0.0000863825 1.0000000000
30.0024986267 41.7372589111 0.0048712408 9.0000000000
-0.0000476119 -0.0001773902 0.0000863825 3.0000000000
-0.0000476119 -0.0001773902 0.0000863825 3.0000000000
-0.0000476119 -0.0001773902 0.0000863825 3.0000000000
-0.0000476119 -0.0001773902 0.0000863825 10.0000000000
-0.0000476119 -0.0001773902 0.0000863825 3.0000000000
-0.0000476119 -0.0001773902 0.0000863825 11.0000000000
-0.0000476119 -0.0001773902 0.0000863825 9.0000000000
29.5120525360 40.8584785461 9.5012254715 17.0000000000
0.3350063562 0.4623579979 -0.3385626972 47.0000000000
0.3346087337 0.4614627361 -0.3202160597 85.0000000000
0.3493365943 0.4816093147 -0.3162825108 76.0000000000
0.3579636216 0.4931382835 -0.3058673441 59.0000000000
0.3813300729 0.5249436498 -0.3070366383 50.0000000000
0.3855069578 0.5305142403 -0.2918898165 52.0000000000
0.3993403912 0.5491437316 -0.2835222185 46.0000000000
0.4471661448 0.6144708395 -0.2966545820 10.0000000000
2.8645527363 3.9354634285 -1.7711275816 10.0000000000
3.0801212788 4.2285261154 -1.7671157122 17.0000000000
3.3244113922 4.5605583191 -1.7604267597 14.0000000000
3.6021394730 4.9397420883 -1.7524012327 13.0000000000
3.9713029861 5.4419975281 -1.7629336119 12.0000000000
4.4039850235 6.0327062607 -1.7689955235 10.0000000000
4.9334483147 6.7530169487 -1.7767851353 16.0000000000
5.5260524750 7.5586600304 -1.7631765604 14.0000000000
6.3473882675 8.7588758469 -1.7760761976 15.0000000000
-0.0000476147 -0.0001773834 0.0000861442 120.0000000000
8.2519397736 11.3744525909 -1.6394592524 31.0000000000
8.9546232224 12.3339548111 -1.4204912186 25.0000000000
14.8042488098 20.3837070465 -1.7592091560 4.0000000000
19.5790557861 26.9382419586 -1.5498268604 21.0000000000
33.1331825256 45.5535316467 -1.3024842739 19.0000000000
-0.0000476147 -0.0001773834 0.0000861442 9.0000000000
-0.0000476147 -0.0001773834 0.0000861442 3.0000000000
-0.0000476147 -0.0001773834 0.0000861442 3.0000000000
-0.0000476147 -0.0001773834 0.0000861442 3.0000000000
-0.0000476147 -0.0001773834 0.0000861442 10.0000000000
-0.0000476147 -0.0001773834 0.0000861442 3.0000000000
-0.0000476147 -0.0001773834 0.0000861442 11.0000000000
-0.0000476147 -0.0001773834 0.0000861442 9.0000000000
-0.0000476147 -0.0001773834 0.0000861442 17.0000000000
0.3407283723 0.4645997882 -0.3416228890 46.0000000000
0.3362370431 0.4581426680 -0.3192366064 85.0000000000
0.3500173986 0.4767455161 -0.3144054711 84.0000000000
0.3650199771 0.4968192577 -0.3094570041 62.0000000000
0.3843503296 0.5227513313 -0.3070368767 50.0000000000
0.3863909245 0.5253395438 -0.2902638316 55.0000000000
0.4024989605 0.5468273163 -0.2835230529 46.0000000000
0.4495955408 0.6103908420 -0.2959277630 6.0000000000
2.8860621452 3.9173989296 -1.7704459429 14.0000000000
3.1033089161 4.2091965675 -1.7664783001 19.0000000000
3.3494932652 4.5398073196 -1.7598338127 12.0000000000
3.6362354755 4.9266452789 -1.7551597357 14.0000000000
4.0048847198 5.4221577644 -1.7639493942 13.0000000000
4.4456000328 6.0166244507 -1.7717649937 10.0000000000
4.9804100990 6.7355251312 -1.7796980143 16.0000000000
5.5835232735 7.5456705093 -1.7676221132 13.0000000000
6.4105668068 8.7396688461 -1.7796460390 17.0000000000
7.2573223114 9.8904542923 -1.7228589058 69.0000000000
8.3137893677 11.3219423294 -1.6387701035 33.0000000000
8.8733901978 12.0751552582 -1.3965562582 9.0000000000
14.9804849625 20.3784656525 -1.7661875486 4.0000000000
19.7232284546 26.8105583191 -1.5490047932 21.0000000000
34.1216468811 46.3489799500 -1.3308533430 20.0000000000
-0.0000476175 -0.0001773766 0.0000859059 9.0000000000
-0.0000476175 -0.0001773766 0.0000859059 3.0000000000
-0.0000476175 -0.0001773766 0.0000859059 3.0000000000
-0.0000476175 -0.0001773766 0.0000859059 3.0000000000
-0.0000476175 -0.0001773766 0.0000859059 10.0000000000
-0.0000476175 -0.0001773766 0.0000859059 3.0000000000
-0.0000476175 -0.0001773766 0.0000859059 11.0000000000
-0.0000476175 -0.0001773766 0.0000859059 9.0000000000
28.7307720184 38.8124198914 9.1029071808 16.0000000000
0.3423664868 0.4612416029 -0.3406034708 58.0000000000
0.3409484327 0.4589947760 -0.3211962283 84.0000000000
0.3538110256 0.4761378467 -0.3153448105 78.0000000000
0.3668065965 0.4932693541 -0.3085604608 59.0000000000
0.3862747848 0.5190784335 -0.3061819375 52.0000000000
0.3916880488 0.5259714723 -0.2918909192 49.0000000000
0.4034310281 0.5415351987 -0.2819823027 48.0000000000
0.4519920051 0.6062915325 -0.2952012718 6.0000000000
2.9126143456 3.9046993256 -1.7725003958 12.0000000000
3.1286344528 4.1927747726 -1.7671208382 19.0000000000
3.3790125847 4.5250306129 -1.7616233826 15.0000000000
3.6665518284 4.9065079689 -1.7557142973 14.0000000000
4.0395216942 5.4036417007 -1.7654719353 12.0000000000
4.4893918037 6.0010643005 -1.7749947309 9.0000000000
5.0273180008 6.7152328491 -1.7821964025 16.0000000000
5.6305627823 7.5155520439 -1.7683671713 14.0000000000
6.4737396240 8.7200326920 -1.7832159996 18.0000000000
7.2119436264 9.7073011398 -1.6983865499 50.0000000000
8.3290967941 11.2069072723 -1.6290423870 30.0000000000
-0.0000476216 -0.0001773665 0.0000855485 100.0000000000
15.1440315247 20.3468227386 -1.7712153196 4.0000000000
19.9787368774 26.8327198029 -1.5569237471 21.0000000000
33.8253517151 45.3965263367 -1.3091012239 19.0000000000
-0.0000476216 -0.0001773665 0.0000855485 9.0000000000
-0.0000476216 -0.0001773665 0.0000855485 3.0000000000
-0.0000476216 -0.0001773665 0.0000855485 3.0000000000
34.0531845093 45.5856132507 3.9842123985 20.0000000000
-0.0000476216 -0.0001773665 0.0000855485 10.0000000000
-0.0000476216 -0.0001773665 0.0000855485 3.0000000000
28.8156261444 38.5039634705 6.7635755539 23.0000000000
28.7686328888 38.4131507874 7.8893785477 19.0000000000
28.9609222412 38.6557579041 9.1051092148 33.0000000000
0.3451029360 0.4592013657 -0.3406041861 58.0000000000
0.3447227776 0.4583630264 -0.3221762180 84.0000000000
0.3598103821 0.4782576859 -0.3181618452 76.0000000000
0.3675870895 0.4882333279 -0.3067664206 59.0000000000
0.3925117552 0.5211590528 -0.3087494075 50.0000000000
0.3936095536 0.5222346187 -0.2910784483 55.0000000000
0.4066364169 0.5391329527 -0.2819828093 50.0000000000
0.4588434994 0.6081386209 -0.2973838449 8.0000000000
2.9339354038 3.8863825798 -1.7718185186 13.0000000000
3.1561613083 4.1792335510 -1.7690433264 19.0000000000
3.4061696529 4.5070128441 -1.7622219324 14.0000000000
3.6970763206 4.8883814812 -1.7568193674 14.0000000000
4.0799207687 5.3926339149 -1.7695256472 13.0000000000
4.5344462395 5.9890675545 -1.7791470289 9.0000000000
5.0718288422 6.6964087486 -1.7846941948 17.0000000000
5.6843118668 7.4996366501 -1.7720731497 14.0000000000
6.5194396973 8.6735734940 -1.7816008329 24.0000000000
7.2403674126 9.6292123795 -1.6919940710 40.0000000000
-0.0000476244 -0.0001773597 0.0000853102 7.0000000000
9.2260122299 12.2521505356 -1.4294215441 26.0000000000
15.3293905258 20.3500938416 -1.7791688442 4.0000000000
20.3264160156 26.9641609192 -1.5715378523 22.0000000000
-0.0000476244 -0.0001773597 0.0000853102 1.0000000000
-0.0000476244 -0.0001773597 0.0000853102 9.0000000000
-0.0000476244 -0.0001773597 0.0000853102 3.0000000000
-0.0000476244 -0.0001773597 0.0000853102 3.0000000000
34.4066276550 45.5097084045 3.9948036671 20.0000000000
-0.0000476244 -0.0001773597 0.0000853102 10.0000000000
-0.0000476244 -0.0001773597 0.0000853102 3.0000000000
30.3211841583 40.0329780579 7.0626916885 26.0000000000
29.2580432892 38.6152420044 7.9642987251 40.0000000000
29.8551883698 39.3747177124 9.3147811890 17.0000000000
0.3487078547 0.4586415291 -0.3416245282 58.0000000000
0.3504344225 0.4605732560 -0.3251157999 82.0000000000
0.3571343124 0.4692069590 -0.3134686351 84.0000000000
0.3757197559 0.4932716787 -0.3112534285 62.0000000000
0.3933192790 0.5160143971 -0.3070390522 50.0000000000
0.4021531940 0.5272232294 -0.2951456308 54.0000000000
0.4085363150 0.5354061723 -0.2812122405 50.0000000000
0.4623395801 0.6054821610 -0.2973845601 12.0000000000
2.9608252048 3.8753781319 -1.7745567560 13.0000000000
3.1813242435 4.1624822617 -1.7696862221 20.0000000000
3.4332349300 4.4888343811 -1.7628203630 14.0000000000
3.7345163822 4.8792176247 -1.7612313032 14.0000000000
4.1156215668 5.3752064705 -1.7715538740 12.0000000000
4.5700550079 5.9643936157 -1.7796118259 8.0000000000
5.1174349785 6.6739711761 -1.7867763042 17.0000000000
5.7394838333 7.4798069000 -1.7754089832 14.0000000000
6.5140228271 8.5663471222 -1.7670227289 29.0000000000
7.1889529228 9.4470596313 -1.6672433615 50.0000000000
-0.0000476286 -0.0001773495 0.0000849527 100.0000000000
9.3425607681 12.2637901306 -1.4368529320 14.0000000000
-0.0000476286 -0.0001773495 0.0000849527 100.0000000000
-0.0000476286 -0.0001773495 0.0000849527 60.0000000000
-0.0000476286 -0.0001773495 0.0000849527 20.0000000000
9.4515581131 12.3753967285 0.0014997424 2.0000000000
-0.0000476286 -0.0001773495 0.0000849527 3.0000000000
-0.0000476286 -0.0001773495 0.0000849527 3.0000000000
34.7724418640 45.4470520020 4.0067911148 41.0000000000
-0.0000476286 -0.0001773495 0.0000849527 10.0000000000
-0.0000476286 -0.0001773495 0.0000849527 3.0000000000
-0.0000476286 -0.0001773495 0.0000849527 11.0000000000
29.4974880219 38.4550323486 7.9671955109 40.0000000000
29.4389762878 38.3647994995 9.1158094406 16.0000000000
0.3545680344 0.4606599808 -0.3446850777 57.0000000000
0.3510387540 0.4557395875 -0.3231568635 91.0000000000
0.3599105179 0.4670838714 -0.3134690821 90.0000000000
0.3710030317 0.4811332226 -0.3049731851 59.0000000000
0.3941713274 0.5108180046 -0.3053283989 52.0000000000
0.3996004760 0.5176722407 -0.2910794616 55.0000000000
0.4139609933 0.5358833671 -0.2827544808 45.0000000000
0.4693457186 0.6071651578 -0.2995666862 8.0000000000
2.9842498302 3.8597536087 -1.7752431631 12.0000000000
3.2059652805 4.1435189247 -1.7696892023 19.0000000000
3.4633111954 4.4728980064 -1.7646101713 14.0000000000
3.7672553062 4.8636975288 -1.7634388208 14.0000000000
4.1545515060 5.3598589897 -1.7745953798 12.0000000000
4.6138739586 5.9502892494 -1.7833026648 7.0000000000
5.1629838943 6.6536531448 -1.7892744541 16.0000000000
5.7933211327 7.4606022835 -1.7787443399 14.0000000000
6.5214009285 8.4712371826 -1.7553619146 35.0000000000
7.2227025032 9.3788261414 -1.6625199318 50.0000000000
-0.0000476313 -0.0001773427 0.0000847144 100.0000000000
9.3896389008 12.1750307083 -1.4329622984 26.0000000000
-0.0000476313 -0.0001773427 0.0000847144 100.0000000000
-0.0000476313 -0.0001773427 0.0000847144 100.0000000000
-0.0000476313 -0.0001773427 0.0000847144 63.0000000000
-0.0000476313 -0.0001773427 0.0000847144 32.0000000000
-0.0000476313 -0.0001773427 0.0000847144 36.0000000000
-0.0000476313 -0.0001773427 0.0000847144 61.0000000000
-0.0000476313 -0.0001773427 0.0000847144 33.0000000000
-0.0000476313 -0.0001773427 0.0000847144 100.0000000000
9.5492076874 12.3149271011 1.8238968849 4.0000000000
9.5556182861 12.3187284470 2.1926338673 3.0000000000
-0.0000476313 -0.0001773427 0.0000847144 9.0000000000
-0.0000476313 -0.0001773427 0.0000847144 17.0000000000
0.3551006317 0.4558875561 -0.3426456749 58.0000000000
0.3547261655 0.4550780654 -0.3241370618 91.0000000000
0.3625952303 0.4649990797 -0.3134697378 90.0000000000
0.3814620674 0.4888466001 -0.3112544417 62.0000000000
0.3993288577 0.5113780499 -0.3070402443 50.0000000000
0.4014539123 0.5139308572 -0.2902665436 55.0000000000
0.4159029424 0.5320396423 -0.2819842696 46.0000000000
2.8200240135 3.6055598259 -1.7869170904 3.0000000000
3.0099005699 3.8469355106 -1.7772973776 12.0000000000
3.2344462872 4.1309494972 -1.7722520828 19.0000000000
3.4913785458 4.4559025764 -1.7658038139 15.0000000000
3.8011453152 4.8494954109 -1.7661973238 14.0000000000
4.1925196648 5.3449807167 -1.7776366472 12.0000000000
4.6540646553 5.9312520027 -1.7856113911 8.0000000000
5.2072639465 6.6315064430 -1.7913565636 16.0000000000
5.8483414650 7.4425659180 -1.7824503183 20.0000000000
6.5239987373 8.3743743896 -1.7430526018 39.0000000000
7.2546844482 9.3089437485 -1.6575187445 55.0000000000
8.5478754044 10.9604310989 -1.6216520071 31.0000000000
9.2010898590 11.7895002365 -1.3938070536 37.0000000000
9.5557699203 12.2395353317 -1.0843480825 19.0000000000
9.5594444275 12.2354145050 -0.7226119041 15.0000000000
9.5641307831 12.2325801849 -0.3590294421 15.0000000000
9.5774641037 12.2452249527 0.0014827957 18.0000000000
9.5705165863 12.2275133133 0.3619906604 10.0000000000
9.5854396820 12.2377452850 0.7264130116 16.0000000000
-0.0000476341 -0.0001773359 0.0000844761 100.0000000000
-0.0000476341 -0.0001773359 0.0000844761 40.0000000000
-0.0000476341 -0.0001773359 0.0000844761 57.0000000000
-0.0000476341 -0.0001773359 0.0000844761 27.0000000000
-0.0000476341 -0.0001773359 0.0000844761 100.0000000000
-0.0000476341 -0.0001773359 0.0000844761 22.0000000000
0.3599256873 0.4564622939 -0.3446865678 46.0000000000
0.3606581390 0.4570635557 -0.3270764053 89.0000000000
0.3719136417 0.4711562395 -0.3191029429 99.0000000000
0.3810346425 0.4823760092 -0.3085631430 62.0000000000
0.4001198709 0.5061741471 -0.3053295612 52.0000000000
0.4112905860 0.5201178193 -0.2951474786 54.0000000000
0.4224852920 0.5339033008 -0.2842969298 41.0000000000
2.8355808258 3.5814471245 -1.7832833529 3.0000000000
3.0326790810 3.8290169239 -1.7772997618 12.0000000000
3.2624404430 4.1161532402 -1.7741746902 20.0000000000
3.5213155746 4.4395942688 -1.7675935030 14.0000000000
3.8334357738 4.8313703537 -1.7678537369 14.0000000000
4.2277779579 5.3245496750 -1.7791591883 12.0000000000
4.6976613998 5.9142179489 -1.7888414860 9.0000000000
5.2538242340 6.6096725464 -1.7938547134 17.0000000000
5.8887290955 7.4031100273 -1.7813446522 43.0000000000
6.5295815468 8.2797193527 -1.7313916683 44.0000000000
7.2374310493 9.1740007401 -1.6411123276 50.0000000000
8.6226234436 10.9220037460 -1.6235125065 33.0000000000
9.4906215668 12.0128288269 -1.4268521070 39.0000000000
-0.0000476383 -0.0001773257 0.0000841186 8.0000000000
21.3309898376 26.9708690643 -1.6004269123 11.0000000000
-0.0000476383 -0.0001773257 0.0000841186 3.0000000000
-0.0000476383 -0.0001773257 0.0000841186 18.0000000000
-0.0000476383 -0.0001773257 0.0000841186 6.0000000000
-0.0000476383 -0.0001773257 0.0000841186 3.0000000000
-0.0000476383 -0.0001773257 0.0000841186 6.0000000000
9.6972932816 12.2171583176 1.4567236900 4.0000000000
9.6913251877 12.2008705139 1.8236496449 9.0000000000
9.6842279434 12.1875362396 2.1892766953 11.0000000000
9.6935739517 12.1905479431 2.5603871346 15.0000000000
9.7007303238 12.1907758713 2.9368779659 12.0000000000
0.3636242449 0.4557308853 -0.3457070589 45.0000000000
0.3643830419 0.4563532472 -0.3280562460 100.0000000000
0.3735270798 0.4676448107 -0.3181642890 94.0000000000
0.3804641664 0.4759984314 -0.3058715761 59.0000000000
0.4030248821 0.5038646460 -0.3053298891 52.0000000000
0.4154231846 0.5191665888 -0.2959613502 54.0000000000
0.4232482910 0.5285827518 -0.2827561200 37.0000000000
2.8573369980 3.5665228367 -1.7840127945 4.0000000000
3.0582070351 3.8158862591 -1.7793537378 12.0000000000
3.2860956192 4.0973052979 -1.7741770744 19.0000000000
3.5480182171 4.4207077026 -1.7681924105 13.0000000000
3.8636064529 4.8122005463 -1.7689591646 14.0000000000
4.2632164955 5.3061399460 -1.7811880112 12.0000000000
4.7389588356 5.8961510658 -1.7916111946 5.0000000000
5.2991671562 6.5884475708 -1.7963528633 16.0000000000
5.9386687279 7.3782649040 -1.7835700512 30.0000000000
6.5365357399 8.1910648346 -1.7207027674 47.0000000000
7.2691421509 9.1058597565 -1.6363888979 74.0000000000
8.6568613052 10.8364410400 -1.6181889772 28.0000000000
9.6106462479 12.0217571259 -1.4344689846 19.0000000000
-0.0000476410 -0.0001773190 0.0000838803 93.0000000000
-0.0000476410 -0.0001773190 0.0000838803 60.0000000000
11.2238750458 14.0145559311 -0.4151839018 4.0000000000
11.2293357849 14.0163288116 0.0016821378 1.0000000000
35.9499282837 44.8403968811 1.3395404816 23.0000000000
-0.0000476410 -0.0001773190 0.0000838803 3.0000000000
35.8241806030 44.6354789734 4.0073838234 20.0000000000
-0.0000476410 -0.0001773190 0.0000838803 10.0000000000
-0.0000476410 -0.0001773190 0.0000838803 3.0000000000
-0.0000476410 -0.0001773190 0.0000838803 11.0000000000
-0.0000476410 -0.0001773190 0.0000838803 9.0000000000
-0.0000476410 -0.0001773190 0.0000838803 17.0000000000
0.3705614507 0.4589769244 -0.3497878909 44.0000000000
0.3779552579 0.4678094983 -0.3378520310 100.0000000000
0.3828712106 0.4737249911 -0.3237976134 95.0000000000
0.3809536397 0.4710181952 -0.3040776849 61.0000000000
0.4059181511 0.5015270114 -0.3053306341 52.0000000000
0.4126616120 0.5096700191 -0.2918952703 52.0000000000
0.4274470210 0.5275696516 -0.2835273147 37.0000000000
2.8813436031 3.5543303490 -1.7861974239 4.0000000000
3.0825102329 3.8011343479 -1.7807239294 12.0000000000
3.3144092560 4.0841774940 -1.7767404318 19.0000000000
3.5794374943 4.4076118469 -1.7711731195 15.0000000000
3.8961141109 4.7958507538 -1.7711664438 14.0000000000
4.2949252129 5.2830018997 -1.7816975117 12.0000000000
4.7814340591 5.8793225288 -1.7948417664 9.0000000000
5.3357930183 6.5563101768 -1.7959411144 17.0000000000
6.0083613396 7.3774514198 -1.7917175293 16.0000000000
6.5426898003 8.1026134491 -1.7100135088 44.0000000000
7.2990703583 9.0361099243 -1.6313873529 55.0000000000
8.6654338837 10.7199859619 -1.6082285643 31.0000000000
9.7586193085 12.0637187958 -1.4461700916 14.0000000000
-0.0000476438 -0.0001773122 0.0000836420 100.0000000000
-0.0000476438 -0.0001773122 0.0000836420 96.0000000000
-0.0000476438 -0.0001773122 0.0000836420 45.0000000000
-0.0000476438 -0.0001773122 0.0000836420 37.0000000000
-0.0000476438 -0.0001773122 0.0000836420 60.0000000000
-0.0000476438 -0.0001773122 0.0000836420 48.0000000000
11.2730560303 13.8811511993 1.2521209717 7.0000000000
11.2753839493 13.8740940094 1.6696336269 4.0000000000
47.0744895935 57.8829841614 8.7316942215 56.0000000000
-0.0000476438 -0.0001773122 0.0000836420 11.0000000000
33.9857292175 41.7441368103 8.8488445282 21.0000000000
32.4948005676 39.8843231201 9.6977167130 18.0000000000
0.3721172512 0.4555208087 -0.3487679362 45.0000000000
0.3773362637 0.4615788162 -0.3349138200 100.0000000000
0.3855862021 0.4714951813 -0.3237985969 95.0000000000
0.3904438615 0.4770974815 -0.3094621301 62.0000000000
0.4065073133 0.4963746071 -0.3036204576 52.0000000000
0.4155853093 0.5072865486 -0.2918957770 52.0000000000
0.4304856360 0.5251049399 -0.2835278809 37.0000000000
2.9053053856 3.5419912338 -1.7883819342 4.0000000000
3.1055345535 3.7847507000 -1.7814105749 12.0000000000
3.3390870094 4.0665044785 -1.7773827314 19.0000000000
3.6047682762 4.3869361877 -1.7711756229 15.0000000000
3.9273271561 4.7777800560 -1.7728229761 14.0000000000
4.3351149559 5.2701292038 -1.7857518196 12.0000000000
4.8201680183 5.8577070236 -1.7966890335 10.0000000000
5.3834052086 6.5375299454 -1.7992708683 16.0000000000
6.0607604980 7.3548693657 -1.7946832180 17.0000000000
6.5430440903 8.0082540512 -1.6980277300 44.0000000000
7.3635177612 9.0092363358 -1.6341750622 45.0000000000
8.7320604324 10.6760377884 -1.6091625690 31.0000000000
9.7711868286 11.9379835129 -1.4378247261 13.0000000000
-0.0000476480 -0.0001773020 0.0000832846 8.0000000000
21.7684783936 26.5673789978 -1.5986151695 17.0000000000
-0.0000476480 -0.0001773020 0.0000832846 1.0000000000
11.3697538376 13.8613109589 0.0016623946 7.0000000000
11.3524789810 13.8303804398 0.4170858562 12.0000000000
11.3505649567 13.8181924820 0.8355946541 17.0000000000
-0.0000476480 -0.0001773020 0.0000832846 77.0000000000
-0.0000476480 -0.0001773020 0.0000832846 40.0000000000
-0.0000476480 -0.0001773020 0.0000832846 75.0000000000
-0.0000476480 -0.0001773020 0.0000832846 37.0000000000
-0.0000476480 -0.0001773020 0.0000832846 33.0000000000
-0.0000476480 -0.0001773020 0.0000832846 30.0000000000
0.3736401498 0.4520454109 -0.3477483690 33.0000000000
0.3799926639 0.4594066143 -0.3349141479 100.0000000000
0.3916837573 0.4733752906 -0.3266148865 95.0000000000
0.3909074962 0.4720949531 -0.3076680005 62.0000000000
0.4105220735 0.4954406023 -0.3044758737 52.0000000000
0.4244240820 0.5118535757 -0.2959626615 54.0000000000
0.4335054159 0.5226150155 -0.2835284770 37.0000000000
2.9268567562 3.5266563892 -1.7891108990 4.0000000000
3.1291496754 3.7677226067 -1.7820967436 12.0000000000
3.3624455929 4.0471844673 -1.7773859501 19.0000000000
3.6324114799 4.3690266609 -1.7723698616 15.0000000000
3.9617612362 4.7617945671 -1.7755812407 14.0000000000
4.3703484535 5.2510113716 -1.7877807617 12.0000000000
4.8585815430 5.8335018158 -1.7980753183 10.0000000000
5.4258742332 6.5100002289 -1.8005216122 16.0000000000
6.1118464470 7.3278226852 -1.7969087362 31.0000000000
6.5488243103 7.9217543602 -1.6876628399 47.0000000000
7.2401070595 8.7517366409 -1.5952364206 77.0000000000
8.7908782959 10.6225204468 -1.6087052822 29.0000000000
-0.0000476507 -0.0001772952 0.0000830462 95.0000000000
16.7207164764 20.1759281158 -1.8299829960 4.0000000000
21.9644908905 26.4938564301 -1.6017929316 23.0000000000
37.0294265747 44.6336555481 -1.3412928581 20.0000000000
36.0801887512 43.4585380554 0.0050325510 27.0000000000
-0.0000476507 -0.0001772952 0.0000830462 3.0000000000
-0.0000476507 -0.0001772952 0.0000830462 3.0000000000
-0.0000476507 -0.0001772952 0.0000830462 3.0000000000
11.4444971085 13.7504806519 1.6707321405 4.0000000000
11.4035282135 13.6963567734 2.0858516693 16.0000000000
11.3793296814 13.6575660706 2.5000748634 23.0000000000
-0.0000476507 -0.0001772952 0.0000830462 49.0000000000
11.3587179184 13.6182765961 3.3428900242 28.0000000000
0.3796289861 0.4537782669 -0.3508090973 33.0000000000
0.3827169836 0.4571397603 -0.3349148631 100.0000000000
0.4001558125 0.4778129458 -0.3313093781 91.0000000000
0.3948489130 0.4711264968 -0.3085660040 62.0000000000
0.4145273268 0.4944444001 -0.3053322732 52.0000000000
0.4203128219 0.5009838343 -0.2910837829 55.0000000000
0.4330306947 0.5157760382 -0.2812173069 34.0000000000
2.9435234070 3.5054557323 -1.7869313955 6.0000000000
3.1507847309 3.7496216297 -1.7820996046 12.0000000000
3.3893642426 4.0321111679 -1.7793086767 19.0000000000
3.6624352932 4.3538870811 -1.7747548819 15.0000000000
3.9940681458 4.7447671890 -1.7777891159 14.0000000000
4.4055061340 5.2316932678 -1.7898088694 12.0000000000
4.9008746147 5.8158226013 -1.8013061285 10.0000000000
5.4671859741 6.4855794907 -1.8021883965 16.0000000000
6.1514101028 7.2920727730 -1.7965432405 36.0000000000
6.5627856255 7.8433895111 -1.6792423725 44.0000000000
7.2357401848 8.6445960999 -1.5832804441 80.0000000000
8.8167638779 10.5259933472 -1.6019905806 44.0000000000
9.9037132263 11.8152761459 -1.4369114637 7.0000000000
16.8943233490 20.1480751038 -1.8362658024 4.0000000000
22.0712337494 26.3033523560 -1.5981825590 17.0000000000
-0.0000476535 -0.0001772884 0.0000828079 1.0000000000
36.3916473389 43.3235282898 0.0050146743 40.0000000000
36.6761054993 43.6311454773 1.3283904791 23.0000000000
-0.0000476535 -0.0001772884 0.0000828079 3.0000000000
36.7619400024 43.6866340637 3.9976389408 20.0000000000
38.0246582031 45.1711196899 5.5139040947 22.0000000000
-0.0000476535 -0.0001772884 0.0000828079 3.0000000000
-0.0000476535 -0.0001772884 0.0000828079 22.0000000000
-0.0000476535 -0.0001772884 0.0000828079 19.0000000000
11.4863958359 13.6111993790 3.3573298454 5.0000000000
0.3832710683 0.4529712200 -0.3518295288 33.0000000000
0.3920202851 0.4629780650 -0.3407926559 100.0000000000
0.3982575238 0.4701794684 -0.3275548220 99.0000000000
0.4009408951 0.4730060101 -0.3112582266 62.0000000000
0.4150343537 0.4892933071 -0.3036217988 52.0000000000
0.4208422601 0.4957922399 -0.2894571424 55.0000000000
0.4418814182 0.5203992128 -0.2850710452 30.0000000000
2.9648675919 3.4898436069 -1.7876617908 6.0000000000
3.1796398163 3.7400100231 -1.7862052917 11.0000000000
3.4174370766 4.0182895660 -1.7818717957 19.0000000000
3.6899182796 4.3356142044 -1.7759491205 13.0000000000
4.0225887299 4.7231655121 -1.7783432007 14.0000000000
4.4405860901 5.2121100426 -1.7918381691 12.0000000000
4.9418668747 5.7963938713 -1.8040753603 9.0000000000
5.5119261742 6.4604601860 -1.8042707443 16.0000000000
6.2098932266 7.2733969688 -1.8009891510 27.0000000000
6.5873689651 7.7840237617 -1.6743860245 26.0000000000
7.3353133202 8.6617078781 -1.5941348076 69.0000000000
8.8972463608 10.5023565292 -1.6059373617 34.0000000000
10.2979230881 12.1471223831 -1.4842494726 17.0000000000
17.0707588196 20.1219558716 -1.8428267241 4.0000000000
22.4039440155 26.3990364075 -1.6115890741 17.0000000000
37.2058792114 43.8094367981 -1.3293684721 40.0000000000
36.6444511414 43.1177749634 0.0049888124 27.0000000000
36.8441009521 43.3372840881 1.3256620169 23.0000000000
-0.0000476577 -0.0001772782 0.0000824505 3.0000000000
36.6469192505 43.0442504883 3.9580810070 20.0000000000
-0.0000476577 -0.0001772782 0.0000824505 10.0000000000
37.6440353394 44.1683845520 6.7917971611 31.0000000000
-0.0000476577 -0.0001772782 0.0000824505 11.0000000000
-0.0000476577 -0.0001772782 0.0000824505 9.0000000000
-0.0000476577 -0.0001772782 0.0000824505 17.0000000000
0.3881825507 0.4532780647 -0.3538706899 32.0000000000
0.3959020078 0.4619703591 -0.3417726755 100.0000000000
0.4067786932 0.4744972885 -0.3322495818 96.0000000000
0.4060783088 0.4733447731 -0.3130530715 60.0000000000
0.4238210917 0.4936885536 -0.3078996539 50.0000000000
0.4237681031 0.4932754636 -0.2894580066 55.0000000000
0.4389433861 0.5107499957 -0.2812185884 30.0000000000
2.9867389202 3.4736132622 -1.7883911133 6.0000000000
3.2042248249 3.7239155769 -1.7875757217 11.0000000000
3.4387454987 3.9950661659 -1.7805943489 19.0000000000
3.7230675220 4.3223376274 -1.7795253992 16.0000000000
4.0593185425 4.7093877792 -1.7822042704 14.0000000000
4.4777503014 5.1929893494 -1.7943733931 12.0000000000
4.9812574387 5.7728490829 -1.8059232235 10.0000000000
5.5539946556 6.4320721626 -1.8055223227 16.0000000000
6.2709350586 7.2572407722 -1.8061757088 16.0000000000
6.6385731697 7.7507829666 -1.6756876707 30.0000000000
7.2641491890 8.4751825333 -1.5677134991 65.0000000000
8.9943208694 10.4900913239 -1.6122021675 41.0000000000
10.4463214874 12.1749553680 -1.4952086210 20.0000000000
17.2574386597 20.0990085602 -1.8500853777 5.0000000000
22.7294311523 26.4626369476 -1.6236950159 12.0000000000
37.7441062927 43.9123878479 -1.3392925262 20.0000000000
36.8266372681 42.8146591187 0.0049525206 40.0000000000
-0.0000476604 -0.0001772714 0.0000822122 3.0000000000
37.8492279053 43.9567680359 2.7101826668 20.0000000000
38.2366104126 44.3752479553 4.1012310982 20.0000000000
38.7895545959 44.9851188660 5.5469484329 23.0000000000
38.0222473145 44.0796051025 6.8126921654 31.0000000000
-0.0000476604 -0.0001772714 0.0000822122 11.0000000000
-0.0000476604 -0.0001772714 0.0000822122 9.0000000000
34.7969512939 40.2691345215 10.0321340561 19.0000000000
0.3874945641 0.4470734298 -0.3508110046 33.0000000000
0.3997789621 0.4609315395 -0.3427526653 87.0000000000
0.4130541682 0.4760711789 -0.3350666761 94.0000000000
0.4159035981 0.4790188670 -0.3184372187 60.0000000000
0.4219114184 0.4857698679 -0.3044784665 47.0000000000
0.4385944605 0.5046303272 -0.2975915074 45.0000000000
0.4468120933 0.5137145519 -0.2843017578 28.0000000000
3.0066967010 3.4563472271 -1.7883937359 7.0000000000
3.2256269455 3.7054157257 -1.7875777483 12.0000000000
3.4666769505 3.9809069633 -1.7831573486 22.0000000000
3.7478945255 4.3008136749 -1.7795284986 16.0000000000
4.0901708603 4.6902766228 -1.7838609219 14.0000000000
4.5152192116 5.1758708954 -1.7974145412 12.0000000000
5.0208244324 5.7513918877 -1.8082317114 10.0000000000
5.5975613594 6.4098043442 -1.8080201149 16.0000000000
6.3178315163 7.2294917107 -1.8080313206 16.0000000000
7.1705040932 8.2719888687 -1.7975431681 52.0000000000
7.3387956619 8.4631309509 -1.5732823610 52.0000000000
9.0460004807 10.4245395660 -1.6103544235 30.0000000000
10.5510339737 12.1503486633 -1.4998564720 25.0000000000
17.4461956024 20.0836429596 -1.8579005003 5.0000000000
23.0000896454 26.4584655762 -1.6318023205 12.0000000000
38.0921783447 43.8044090271 -1.3426957130 20.0000000000
37.0397949219 42.5641250610 0.0049219117 40.0000000000
36.9474601746 42.4280166626 1.3111174107 23.0000000000
37.1674385071 42.6654968262 2.6436991692 19.0000000000
37.4650268555 42.9767265320 3.9918315411 20.0000000000
-0.0000476632 -0.0001772647 0.0000819739 10.0000000000
38.3747673035 43.9736366272 6.8303327560 31.0000000000
-0.0000476632 -0.0001772647 0.0000819739 11.0000000000
-0.0000476632 -0.0001772647 0.0000819739 9.0000000000
-0.0000476632 -0.0001772647 0.0000819739 17.0000000000
0.3877243698 0.4423285723 -0.3487711251 33.0000000000
0.4046445787 0.4613218904 -0.3447119892 68.0000000000
0.4168730080 0.4750888646 -0.3360058665 94.0000000000
0.4197510779 0.4780235589 -0.3193351328 63.0000000000
0.4270943403 0.4860544801 -0.3061898649 44.0000000000
0.4414944053 0.5020912886 -0.2975922227 49.0000000000
0.4509003460 0.5126153827 -0.2850725949 31.0000000000
3.0228676796 3.4347918034 -1.7862137556 8.0000000000
3.2481544018 3.6881811619 -1.7882642746 11.0000000000
3.4933125973 3.9651577473 -1.7850798368 19.0000000000
3.7763910294 4.2834544182 -1.7813180685 16.0000000000
4.1221995354 4.6724066734 -1.7860684395 14.0000000000
4.5526318550 5.1584782600 -1.8004561663 12.0000000000
5.0603065491 5.7296729088 -1.8105404377 10.0000000000
5.6406664848 6.3823156357 -1.8096874952 15.0000000000
6.3736371994 7.2065916061 -1.8117376566 16.0000000000
7.2126822472 8.2273511887 -1.7965763807 52.0000000000
7.3064336777 8.3284101486 -1.5560410023 61.0000000000
9.1119403839 10.3828086853 -1.6117517948 12.0000000000
10.7869224548 12.2827463150 -1.5236229897 22.0000000000
17.6208381653 20.0502586365 -1.8641836643 5.0000000000
22.9694252014 26.1270484924 -1.6192636490 12.0000000000
38.2196884155 43.4431800842 -1.3383752108 20.0000000000
37.2948989868 42.3620758057 0.0048965812 40.0000000000
37.5446205139 42.6306419373 1.3238112926 23.0000000000
37.7982711792 42.8883895874 2.6709275246 20.0000000000
38.3612098694 43.4964218140 4.0605292320 20.0000000000
-0.0000476674 -0.0001772545 0.0000816164 10.0000000000
38.7798957825 43.9246025085 6.8572716713 32.0000000000
-0.0000476674 -0.0001772545 0.0000816164 11.0000000000
-0.0000476674 -0.0001772545 0.0000816164 9.0000000000
-0.0000476674 -0.0001772545 0.0000816164 17.0000000000
0.3960432410 0.4464428723 -0.3538720906 32.0000000000
0.4108433425 0.4627984464 -0.3476518989 55.0000000000
0.4255511463 0.4792085290 -0.3407004774 100.0000000000
0.4285280108 0.4822292924 -0.3238213956 60.0000000000
0.4383771122 0.4929524362 -0.3121795058 45.0000000000
0.4504430294 0.5063475966 -0.3016598225 45.0000000000
0.4613001347 0.5181962848 -0.2896975279 35.0000000000
3.0493829250 3.4237337112 -1.7898532152 9.0000000000
3.2693424225 3.6694068909 -1.7882670164 12.0000000000
3.5205574036 3.9485902786 -1.7870031595 17.0000000000
3.8106448650 4.2709531784 -1.7854899168 17.0000000000
4.1528868675 4.6529011726 -1.7877247334 13.0000000000
4.5870289803 5.1356940269 -1.8019788265 12.0000000000
5.1010036469 5.7091436386 -1.8133099079 11.0000000000
5.6864719391 6.3599467278 -1.8126009703 15.0000000000
6.4320774078 7.1888031960 -1.8165541887 18.0000000000
7.1762471199 8.0884552002 -1.7755167484 52.0000000000
7.3332457542 8.2624940872 -1.5515952110 58.0000000000
9.4121580124 10.5974016190 -1.6537114382 7.0000000000
10.8807926178 12.2423563004 -1.5266001225 18.0000000000
17.8102664948 20.0319309235 -1.8719996214 5.0000000000
23.1121120453 25.9768524170 -1.6184433699 12.0000000000
39.2080764771 44.0369338989 -1.3638418913 20.0000000000
37.6167526245 42.2346878052 0.0048801149 27.0000000000
38.2106742859 42.8713111877 1.3382744789 23.0000000000
38.0188674927 42.6260566711 2.6685667038 20.0000000000
-0.0000476701 -0.0001772477 0.0000813781 3.0000000000
38.2838439941 42.8777580261 5.3677930832 22.0000000000
-0.0000476701 -0.0001772477 0.0000813781 3.0000000000
-0.0000476701 -0.0001772477 0.0000813781 11.0000000000
-0.0000476701 -0.0001772477 0.0000813781 9.0000000000
-0.0000476701 -0.0001772477 0.0000813781 17.0000000000
0.3940106034 0.4390235245 -0.3497927487 33.0000000000
0.4134994149 0.4604277909 -0.3476523757 49.0000000000
0.4353895783 0.4846512973 -0.3463333547 100.0000000000
0.4336839318 0.4823948145 -0.3256168365 60.0000000000
0.4412137568 0.4904399216 -0.3121795654 47.0000000000
0.4545869231 0.5051267743 -0.3024731576 45.0000000000
0.4655054212 0.5168825984 -0.2904692590 39.0000000000
3.0665612221 3.4033617973 -1.7884004116 9.0000000000
3.2967109680 3.6574897766 -1.7916891575 12.0000000000
3.5445125103 3.9296646118 -1.7876456976 20.0000000000
3.8364644051 4.2503514290 -1.7860883474 17.0000000000
4.1809053421 4.6303176880 -1.7882792950 13.0000000000
4.6230168343 5.1163711548 -1.8045138121 12.0000000000
5.1364212036 5.6825752258 -1.8142350912 11.0000000000
5.7348122597 6.3401432037 -1.8163462877 16.0000000000
6.4786505699 7.1574735641 -1.8180392981 15.0000000000
7.1568074226 7.9735636711 -1.7593181133 57.0000000000
7.3555717468 8.1921167374 -1.5463154316 65.0000000000
9.4902944565 10.5622158051 -1.6567317247 10.0000000000
11.0323381424 12.2698059082 -1.5379307270 28.0000000000
17.9973983765 20.0091304779 -1.8795366287 5.0000000000
-0.0000476743 -0.0001772375 0.0000810206 3.0000000000
-0.0000476743 -0.0001772375 0.0000810206 1.0000000000
37.9115982056 42.0752944946 0.0048606442 27.0000000000
-0.0000476743 -0.0001772375 0.0000810206 3.0000000000
-0.0000476743 -0.0001772375 0.0000810206 3.0000000000
38.1605567932 42.2771034241 3.9874217510 20.0000000000
38.4127006531 42.5265121460 5.3514027596 22.0000000000
39.6438865662 43.8586769104 6.9188208580 32.0000000000
-0.0000476743 -0.0001772375 0.0000810206 11.0000000000
-0.0000476743 -0.0001772375 0.0000810206 9.0000000000
26.1673965454 28.8984584808 7.3487215042 18.0000000000
0.4046221673 0.4456672668 -0.3569334745 32.0000000000
0.4137983322 0.4554573298 -0.3456937671 36.0000000000
0.4357952476 0.4795056581 -0.3444567323 100.0000000000
0.4376602471 0.4812131524 -0.3265146613 60.0000000000
0.4452420771 0.4892023802 -0.3130362928 47.0000000000
0.4587962925 0.5037462115 -0.3032876253 45.0000000000
0.4771777987 0.5237687230 -0.2958640158 36.0000000000
3.0848579407 3.3842597008 -1.7876758575 9.0000000000
3.3158242702 3.6350846291 -1.7903239727 11.0000000000
3.5721986294 3.9147808552 -1.7902088165 20.0000000000
3.8595952988 4.2267775536 -1.7854957581 16.0000000000
4.2135024071 4.6111173630 -1.7904866934 14.0000000000
4.6550288200 5.0925226212 -1.8055299520 13.0000000000
5.1766119003 5.6591691971 -1.8165439367 11.0000000000
5.7763056755 6.3103413582 -1.8175971508 15.0000000000
6.5064091682 7.1029524803 -1.8139727116 26.0000000000
7.1800518036 7.9073634148 -1.7538143396 55.0000000000
7.4067091942 8.1512413025 -1.5468776226 65.0000000000
9.5710153580 10.5294332504 -1.6602154970 10.0000000000
11.1818838120 12.2929868698 -1.5488897562 13.0000000000
18.2017593384 19.9963855743 -1.8884683847 5.0000000000
24.6271038055 27.0457553864 -1.7026405334 6.0000000000
-0.0000476771 -0.0001772307 0.0000807823 1.0000000000
40.0782127380 43.9525680542 0.0050722705 16.0000000000
-0.0000476771 -0.0001772307 0.0000807823 3.0000000000
41.0421905518 44.9622459412 2.8441684246 22.0000000000
39.5693054199 43.3182182312 4.1076598167 20.0000000000
38.5998954773 42.2272644043 5.3424491882 22.0000000000
42.5057754517 46.4838104248 7.3714075089 38.0000000000
-0.0000476771 -0.0001772307 0.0000807823 11.0000000000
-0.0000476771 -0.0001772307 0.0000807823 9.0000000000
-0.0000476771 -0.0001772307 0.0000807823 17.0000000000
0.4002802968 0.4356592000 -0.3508137465 22.0000000000
0.4235796034 0.4606981874 -0.3515715897 36.0000000000
0.4422252476 0.4808162153 -0.3472736776 100.0000000000
0.4477713108 0.4865027070 -0.3318985403 57.0000000000
0.4566302896 0.4959568679 -0.3190250695 47.0000000000
0.4666509032 0.5064889789 -0.3065410852 45.0000000000
0.4840290844 0.5249902010 -0.2981769741 36.0000000000
3.1131448746 3.3760347366 -1.7927691936 10.0000000000
3.3405275345 3.6200819016 -1.7923778296 13.0000000000
3.5972585678 3.8969297409 -1.7914916277 20.0000000000
3.8955233097 4.2170782089 -1.7908595800 20.0000000000
4.2504243851 4.5980663300 -1.7948987484 14.0000000000
4.6829705238 5.0642209053 -1.8050267696 11.0000000000
5.2183775902 5.6392617226 -1.8197743893 10.0000000000
5.8220829964 6.2894501686 -1.8209270239 17.0000000000
6.5099115372 7.0275764465 -1.8039835691 29.0000000000
7.1841158867 7.8181076050 -1.7434493303 57.0000000000
7.4294142723 8.0822010040 -1.5418758392 73.0000000000
9.6494741440 10.4900026321 -1.6630038023 10.0000000000
10.7394351959 11.6667127609 -1.4779925346 17.0000000000
18.3544692993 19.9323215485 -1.8923827410 5.0000000000
24.5827331543 26.6772861481 -1.6886154413 6.0000000000
40.6610107422 44.1100578308 -1.3877458572 21.0000000000
40.3917121887 43.7871437073 0.0050515337 32.0000000000
-0.0000476798 -0.0001772239 0.0000805440 3.0000000000
38.6019401550 41.8028182983 2.6583125591 19.0000000000
39.3780784607 42.6133804321 4.0622358322 20.0000000000
-0.0000476798 -0.0001772239 0.0000805440 10.0000000000
-0.0000476798 -0.0001772239 0.0000805440 3.0000000000
40.5193595886 43.7714614868 8.3880062103 22.0000000000
-0.0000476798 -0.0001772239 0.0000805440 9.0000000000
26.7430133820 28.8589344025 7.4164800644 9.0000000000
0.4015378654 0.4321625829 -0.3497940898 22.0000000000
0.4213994145 0.4532121122 -0.3476541936 30.0000000000
0.4473026395 0.4809173346 -0.3491519988 100.0000000000
0.4492616951 0.4826797843 -0.3310020268 57.0000000000
0.4607054591 0.4946334958 -0.3198813200 45.0000000000
0.4757821858 0.5104701519 -0.3106085062 42.0000000000
0.4831859469 0.5182393789 -0.2958652079 31.0000000000
3.1363437176 3.3621289730 -1.7949537039 10.0000000000
3.3600442410 3.5994102955 -1.7916965485 12.0000000000
3.6209311485 3.8775265217 -1.7921346426 20.0000000000
3.9171464443 4.1918053627 -1.7896705866 18.0000000000
4.2768311501 4.5734977722 -1.7949022055 13.0000000000
4.7239527702 5.0498695374 -1.8095874786 13.0000000000
5.2613978386 5.6204614639 -1.8234663010 9.0000000000
5.8619842529 6.2576580048 -1.8217625618 21.0000000000
6.5111746788 6.9457983971 -1.7928843498 31.0000000000
7.1846842766 7.7316069603 -1.7330837250 47.0000000000
7.4529147148 8.0146207809 -1.5371520519 55.0000000000
9.7214336395 10.4504718781 -1.6653290987 8.0000000000
11.2684698105 12.1050472260 -1.5414814949 20.0000000000
18.5628108978 19.9270286560 -1.9020100832 5.0000000000
24.7408714294 26.5498085022 -1.6892831326 6.0000000000
-0.0000476840 -0.0001772138 0.0000801866 1.0000000000
-0.0000476840 -0.0001772138 0.0000801866 9.0000000000
-0.0000476840 -0.0001772138 0.0000801866 3.0000000000
-0.0000476840 -0.0001772138 0.0000801866 3.0000000000
39.5411262512 42.2984237671 4.0538282394 20.0000000000
40.1312484741 42.8996009827 5.4855766296 22.0000000000
40.0265769958 42.7726478577 6.8555068970 32.0000000000
-0.0000476840 -0.0001772138 0.0000801866 11.0000000000
-0.0000476840 -0.0001772138 0.0000801866 9.0000000000
26.8577022552 28.6499290466 7.4023828506 28.0000000000
0.3982098401 0.4235078394 -0.3446944058 23.0000000000
0.4252760708 0.4519748390 -0.3486341238 30.0000000000
0.4513602853 0.4795370698 -0.3500914574 100.0000000000
0.4545698464 0.4826160073 -0.3327969611 57.0000000000
0.4698364139 0.4984873533 -0.3241589069 47.0000000000
0.4824794531 0.5117260218 -0.3130485713 44.0000000000
0.4963791966 0.5260950327 -0.3020315766 21.0000000000
3.1524093151 3.3393931389 -1.7927742004 9.0000000000
3.3845968246 3.5841066837 -1.7937506437 11.0000000000
3.6438729763 3.8559653759 -1.7921375036 22.0000000000
3.9498236179 4.1768069267 -1.7932472229 20.0000000000
4.3110423088 4.5571885109 -1.7982116938 13.0000000000
4.7618141174 5.0301709175 -1.8126294613 12.0000000000
5.2910084724 5.5872473717 -1.8225480318 8.0000000000
5.9019660950 6.2280592918 -1.8230135441 37.0000000000
6.5132060051 6.8682498932 -1.7825250626 32.0000000000
7.1506581306 7.6039934158 -1.7139687538 65.0000000000
7.3781676292 7.8431720734 -1.5123989582 69.0000000000
9.8009796143 10.4114179611 -1.6683490276 9.0000000000
11.6104621887 12.3249807358 -1.5782418251 22.0000000000
18.6635780334 19.8052406311 -1.9006301165 5.0000000000
24.9212970734 26.4272441864 -1.6908816099 6.0000000000
41.4402618408 43.9137039185 -1.3967761993 21.0000000000
41.1748619080 43.6171112061 0.0050294460 16.0000000000
-0.0000476868 -0.0001772070 0.0000799483 3.0000000000
-0.0000476868 -0.0001772070 0.0000799483 3.0000000000
-0.0000476868 -0.0001772070 0.0000799483 3.0000000000
40.4077835083 42.6995620728 5.4896397591 22.0000000000
41.3382568359 43.6521987915 7.0356392860 33.0000000000
-0.0000476868 -0.0001772070 0.0000799483 11.0000000000
28.4174766541 29.9765491486 6.7898502350 46.0000000000
27.0313148499 28.4943466187 7.4034767151 19.0000000000
0.4018280506 0.4224460125 -0.3457151353 22.0000000000
0.4254716933 0.4470145404 -0.3466750085 24.0000000000
0.4565501213 0.4794917703 -0.3519695401 100.0000000000
0.4622769952 0.4851637483 -0.3363866508 57.0000000000
0.4751900434 0.4983694851 -0.3258711100 45.0000000000
0.4892024100 0.5129049420 -0.3154892325 44.0000000000
0.5019459724 0.5258838534 -0.3035739362 8.0000000000
3.1741511822 3.3238630295 -1.7942314148 11.0000000000
3.4064724445 3.5658876896 -1.7944376469 13.0000000000
3.6686480045 3.8376710415 -1.7934198380 22.0000000000
3.9790902138 4.1595025063 -1.7956326008 18.0000000000
4.3385429382 4.5336637497 -1.7987661362 12.0000000000
4.7933788300 5.0054507256 -1.8136457205 12.0000000000
5.3352174759 5.5693168640 -1.8267009258 9.0000000000
5.9390931129 6.1953678131 -1.8234337568 31.0000000000
6.5199975967 6.7965855598 -1.7736462355 32.0000000000
7.2310786247 7.6013135910 -1.7227236032 65.0000000000
7.4778351784 7.8579349518 -1.5235317945 65.0000000000
7.8360099792 8.2285518646 -1.3257682323 9.0000000000
11.6043310165 12.1771793365 -1.5678552389 30.0000000000
18.9012508392 19.8274078369 -1.9131840467 5.0000000000
25.2882175446 26.5087871552 -1.7054070234 7.0000000000
44.0450973511 46.1387214661 -1.4756277800 25.0000000000
41.4820289612 43.4385566711 0.0050082835 33.0000000000
-0.0000476895 -0.0001772002 0.0000797100 3.0000000000
45.9823226929 48.0836524963 3.1081788540 28.0000000000
42.6971511841 44.6326675415 4.3243269920 22.0000000000
40.1187477112 41.9079933167 5.4174642563 22.0000000000
43.6818351746 45.5980453491 7.3896546364 38.0000000000
-0.0000476895 -0.0001772002 0.0000797100 11.0000000000
28.5036029816 29.7226390839 6.7693924904 34.0000000000
27.3052120209 28.4530353546 7.4334654808 9.0000000000
0.4102169871 0.4263323843 -0.3508156538 22.0000000000
0.4256203473 0.4420408607 -0.3447166681 25.0000000000
0.4629822671 0.4806690514 -0.3547866046 83.0000000000
0.4737385809 0.4914972186 -0.3426679373 55.0000000000
0.4805648029 0.4982427359 -0.3275823891 45.0000000000
0.4897007644 0.5073623061 -0.3138631582 44.0000000000
2.9992957115 3.1069276333 -1.8033474684 1.0000000000
3.1971309185 3.3095524311 -1.7964156866 11.0000000000
3.4327950478 3.5510170460 -1.7971756458 12.0000000000
3.6959547997 3.8219201565 -1.7959831953 23.0000000000
4.0029826164 4.1365170479 -1.7956355810 18.0000000000
4.3733906746 4.5161275864 -1.8020761013 12.0000000000
4.8288593292 4.9847187996 -1.8161807060 12.0000000000
5.3695259094 5.5389657021 -1.8271654844 9.0000000000
5.9934587479 6.1782746315 -1.8288414478 17.0000000000
